# .PCD v0.7 - Point Cloud Data file format
VERSION 0.7
FIELDS x y z
SIZE 4 4 4
TYPE F F F
COUNT 1 1 1
WIDTH 823
HEIGHT 1
VIEWPOINT 0 0 0 1 0 0 0
POINTS 823
DATA ascii
2.9949326515197754 0.06208876520395279 1.842301368713379
2.994929313659668 0.06208420544862747 1.818860650062561
3.0105299949645996 0.06009431928396225 1.6459832191467285
3.01051926612854 0.059103045612573624 1.5707778930664062
2.9499728679656982 0.06106773763895035 1.5707858800888062
2.614133834838867 0.07396210730075836 2.260377883911133
2.6316895484924316 0.07295089960098267 2.1001973152160645
2.6766092777252197 0.07098668068647385 2.087494373321533
2.631679058074951 0.07195983827114105 2.0259687900543213
2.6453752517700195 0.07296755164861679 2.1988420486450195
2.6590499877929688 0.0719931423664093 2.223257541656494
2.6902947425842285 0.07100336253643036 2.18613862991333
2.6922152042388916 0.06998059153556824 1.9517319202423096
2.73714542388916 0.06900748610496521 2.0132575035095215
2.7527618408203125 0.06899245828390121 1.9517239332199097
2.702998399734497 0.0700363740324974 2.247669219970703
2.733271837234497 0.069054014980793 2.2476651668548584
2.734243154525757 0.06904659420251846 2.210550546646118
2.810419797897339 0.06708613783121109 2.247654676437378
2.8572945594787598 0.0661005973815918 2.2476484775543213
2.8113913536071777 0.06707868725061417 2.2105400562286377
2.8738911151885986 0.06609015166759491 2.21053147315979
3.0105645656585693 0.0611189641058445 1.892110824584961
3.0408377647399902 0.05916040763258934 1.8940606117248535
3.0408377647399902 0.06013660505414009 1.8921068906784058
2.8582470417022705 0.06509047746658325 2.0767266750335693
2.9344189167022705 0.062146563082933426 2.078670024871826
2.873863697052002 0.06507544964551926 2.015192747116089
2.919753313064575 0.06407805532217026 1.9536548852920532
2.9803082942962646 0.06114920228719711 2.017132043838501
2.950026512145996 0.06309569627046585 1.953650951385498
2.9041593074798584 0.06412439048290253 2.1753664016723633
3.010573148727417 0.06015480309724808 1.9555963277816772
-1.9227492809295654 -0.0036646327935159206 3.093503475189209
-1.7979742288589478 -0.0020499436650425196 3.171219825744629
-1.8465747833251953 -0.002681033918634057 3.1223974227905273
1.5873162746429443 0.0779803916811943 3.283864974975586
1.497457504272461 0.07427872717380524 3.1103408336639404
1.5267647504806519 0.07526549696922302 3.2333977222442627
1.5423879623413086 0.07623697817325592 3.208979845046997
1.481837511062622 0.07331161946058273 3.171872138977051
1.390045166015625 0.07040224969387054 3.232433319091797
1.45059335231781 0.07234814763069153 3.245124340057373
1.4056661128997803 0.07039427012205124 3.183598756790161
1.468009352684021 0.07247652113437653 3.3477132320404053
1.461423397064209 0.07220400124788284 3.350632429122925
1.405678629875183 0.07041170448064804 3.3320515155792236
1.4505997896194458 0.07235686480998993 3.3193507194519043
1.3900516033172607 0.07041096687316895 3.306659460067749
1.1947219371795654 0.06650954484939575 3.1084139347076416
1.194724440574646 0.06456054747104645 3.143573760986328
1.2552688121795654 0.06650083512067795 3.1084086894989014
1.2396503686904907 0.06455981731414795 3.1924033164978027
1.2845736742019653 0.06650808453559875 3.2060725688934326
1.3001946210861206 0.06650010496377945 3.157238006591797
1.2396568059921265 0.06456853449344635 3.266629457473755
1.3002071380615234 0.06651750952005386 3.3056907653808594
1.284580111503601 0.06651680171489716 3.280298948287964
1.1947379112243652 0.06457912176847458 3.301793098449707
1.2552860975265503 0.06554867327213287 3.3164379596710205
1.1947356462478638 0.06359969079494476 3.277376651763916
1.1947437524795532 0.06361114978790283 3.3750429153442383
1.255290150642395 0.06555440276861191 3.3652710914611816
1.1947418451309204 0.06458485126495361 3.350626230239868
1.2406452894210815 0.06263256072998047 3.4141058921813965
1.1957252025604248 0.05971219763159752 3.4385266304016113
1.1498271226882935 0.055814288556575775 3.4531807899475098
1.1654523611068726 0.056788574904203415 3.453179359436035
1.1498262882232666 0.05776568874716759 3.438530683517456
1.9359341859817505 0.08886120468378067 3.085886001586914
1.8294895887374878 0.08790147304534912 3.0985915660858154
1.7240244150161743 0.08401612192392349 3.1474339962005615
1.645377516746521 0.0809924453496933 3.199993848800659
1.679108738899231 0.08207838982343674 3.2236452102661133
1.6488306522369385 0.08110000193119049 3.1708805561065674
0.58967524766922 0.0499785840511322 3.197352647781372
0.6199489831924438 0.0509522370994091 3.197349786758423
0.6199468374252319 0.049972809851169586 3.1729342937469482
0.5281474590301514 0.047049082815647125 3.148526430130005
0.543774425983429 0.048027005046606064 3.172940969467163
0.5740461349487305 0.04802123084664345 3.14852237701416
0.4685716927051544 0.04607090726494789 3.086027145385742
0.5593932867050171 0.04801678657531738 3.0987155437469482
0.5593923330307007 0.04899187013506889 3.086019277572632
0.4675975441932678 0.04509739950299263 3.111419916152954
0.513495683670044 0.04606958106160164 3.1114158630371094
0.422674298286438 0.04412367194890976 3.0987274646759033
0.22541074454784393 0.0421922393143177 3.122183322906494
0.30060699582099915 0.042186494916677475 3.134873151779175
0.36115291714668274 0.043155886232852936 3.1231484413146973
0.31622999906539917 0.04218212887644768 3.1104562282562256
0.5896791219711304 0.04803118854761124 3.2461841106414795
0.6199545860290527 0.046078022569417953 3.270597457885742
0.6199528574943542 0.04900484159588814 3.2461814880371094
0.1804947555065155 0.04025198891758919 3.1954345703125
0.19514113664627075 0.04122428223490715 3.1710174083709717
0.180490642786026 0.04219938442111015 3.1466028690338135
0.4978780150413513 0.04412803426384926 3.1973609924316406
0.5135065913200378 0.042179133743047714 3.2461912631988525
0.5135049223899841 0.0451059564948082 3.2217752933502197
0.3611588180065155 0.04121135547757149 3.1963956356048584
0.43733370304107666 0.0402318499982357 3.233501434326172
0.42170482873916626 0.04218074679374695 3.184670925140381
0.5594091415405273 0.04120388999581337 3.2950191497802734
0.5896825194358826 0.04217754676938057 3.295016288757324
0.5594071745872498 0.04413071274757385 3.2706029415130615
0.5896874070167542 0.03827850520610809 3.356544256210327
0.5437920093536377 0.03731072321534157 3.393660306930542
0.19612762331962585 0.036355819553136826 3.2940731048583984
0.2117563784122467 0.03440704196691513 3.3438801765441895
0.2107740044593811 0.03732810914516449 3.26965594291687
0.3025778830051422 0.03439982980489731 3.3565688133239746
0.3777700662612915 0.036341387778520584 3.3194503784179688
0.3015952706336975 0.03732089698314667 3.2823445796966553
0.3631306290626526 0.03342616558074951 3.4307875633239746
0.42270132899284363 0.03537357598543167 3.4307825565338135
0.43832314014434814 0.035367727279663086 3.3936691284179688
0.18148498237133026 0.031483251601457596 3.3692753314971924
0.19711197912693024 0.031484611332416534 3.3936898708343506
0.18148300051689148 0.03343338891863823 3.3438827991485596
0.1971159726381302 0.029537338763475418 3.443498134613037
0.5584496855735779 0.03829891234636307 3.5049946308135986
0.5584583878517151 0.03969555348157883 3.6038060188293457
0.5125555396080017 0.03830905258655548 3.553830146789551
0.5584551095962524 0.03928268328309059 3.5665221214294434
0.5125532746315002 0.038306187838315964 3.529414415359497
0.2557249963283539 0.03628861531615257 3.620483875274658
0.21715448796749115 0.03541579842567444 3.6228318214416504
0.285992830991745 0.0344245620071888 3.553849220275879
0.4025106728076935 0.0392124243080616 3.638611078262329
0.40503549575805664 0.03923525661230087 3.6382999420166016
0.3162609040737152 0.033437881618738174 3.492319345474243
0.39145830273628235 0.03538665175437927 3.516728401184082
0.39145627617836 0.035383787006139755 3.492312431335449
1.0886889696121216 0.05772864446043968 3.0732779502868652
1.0886980295181274 0.06262338161468506 3.174846649169922
0.9676101803779602 0.05873722955584526 3.2471277713775635
1.02815580368042 0.05970671400427818 3.236379623413086
0.98225337266922 0.05970517918467522 3.185598850250244
0.8758075833320618 0.05580887943506241 3.183655023574829
0.8914359211921692 0.05678831413388252 3.2207653522491455
0.906079113483429 0.05775626376271248 3.1592366695404053
0.8455289602279663 0.05482801795005798 3.1221301555633545
0.8758005499839783 0.056775398552417755 3.0977113246917725
0.8308783173561096 0.054826587438583374 3.0977156162261963
0.7254093885421753 0.052883561700582504 3.097724437713623
0.7703332901000977 0.0528821125626564 3.1221365928649902
0.7556828260421753 0.052880652248859406 3.097722053527832
0.6951420903205872 0.05289493873715401 3.1699976921081543
0.740062952041626 0.05288924276828766 3.1582741737365723
0.6951390504837036 0.05289068818092346 3.133862257003784
1.0740634202957153 0.057762209326028824 3.3477120399475098
1.1043373346328735 0.06068911403417587 3.3486855030059814
1.1043353080749512 0.059709686785936356 3.324270009994507
0.9832411408424377 0.056791290640830994 3.321350574493408
1.0135154724121094 0.055813297629356384 3.3340444564819336
1.0437871217727661 0.057760775089263916 3.3106024265289307
1.0740662813186646 0.05678977444767952 3.38287091255188
1.10434091091156 0.05776481702923775 3.394587755203247
1.1043400764465332 0.05971667915582657 3.3838443756103516
1.0740680694580078 0.053862858563661575 3.4063100814819336
1.1043435335159302 0.053862787783145905 3.430723190307617
1.1043425798416138 0.054837871342897415 3.41802716255188
0.8162449598312378 0.049966804683208466 3.2823002338409424
0.8465187549591064 0.052893612533807755 3.282297372817993
0.8308905959129333 0.05191418156027794 3.2451868057250977
0.9227007627487183 0.049971118569374084 3.406323194503784
0.9529723525047302 0.051918499171733856 3.3819048404693604
0.922697901725769 0.05289646238088608 3.369210958480835
0.9832506775856018 0.04899311438202858 3.443429946899414
1.043797492980957 0.05094042420387268 3.443424940109253
1.0135220289230347 0.050940465182065964 3.4190115928649902
0.8318759799003601 0.04802089184522629 3.356523036956787
0.8621525764465332 0.048022329807281494 3.393632411956787
0.862149715423584 0.05094767361879349 3.356520175933838
0.7400677800178528 0.04996678978204727 3.2198023796081543
0.7254242300987244 0.04509271681308746 3.2823081016540527
0.7556978464126587 0.04606637358665466 3.2823057174682617
0.7703432440757751 0.04801374673843384 3.245192527770996
0.801605224609375 0.04412189871072769 3.3936376571655273
0.7713288068771362 0.044120460748672485 3.3565285205841064
0.7410551905632019 0.043146807700395584 3.3565311431884766
0.7107875943183899 0.0402287133038044 3.430757761001587
0.7713345885276794 0.0421760231256485 3.4307525157928467
0.7107845544815063 0.04120093211531639 3.393645763397217
0.9529815316200256 0.04704955220222473 3.500262498855591
0.7479060292243958 0.04333943873643875 3.5729188919067383
0.6951700448989868 0.04024029150605202 3.51670241355896
0.7098223567008972 0.04219773784279823 3.5655324459075928
0.725443422794342 0.04121394455432892 3.51669979095459
0.6588923931121826 0.040425341576337814 3.5689468383789062
0.679550290107727 0.041632942855358124 3.580599069595337
0.6648994088172913 0.04024744778871536 3.552840232849121
-0.34838831424713135 0.03148220106959343 3.1456828117370605
-0.5153845548629761 0.02757837064564228 3.097844123840332
-0.500734269618988 0.026603981852531433 3.122257709503174
-0.4851110875606537 0.030506610870361328 3.0978410243988037
-0.440184623003006 0.026605308055877686 3.158386707305908
-0.3942849338054657 0.027581050992012024 3.1701018810272217
-0.42456114292144775 0.030507966876029968 3.133970022201538
-0.4704488515853882 0.021736880764365196 3.268744945526123
-0.3942759037017822 0.02368786372244358 3.2814342975616455
-0.39427778124809265 0.023684846237301826 3.256042718887329
-0.5163503289222717 0.02075815014541149 3.2316386699676514
-0.44017958641052246 0.02270614542067051 3.2189362049102783
-0.48607903718948364 0.02173040248453617 3.207221031188965
-0.37863868474960327 0.020774943754076958 3.4308524131774902
-0.34836506843566895 0.021750029176473618 3.43084979057312
-0.3483680486679077 0.022722277790308 3.3937392234802246
-0.4548145532608032 0.019796211272478104 3.3810527324676514
-0.42454415559768677 0.021743515506386757 3.3439390659332275
-0.500717043876648 0.01979256421327591 3.3312501907348633
-0.6667524576187134 0.018796546384692192 3.097857713699341
-0.5915549993515015 0.02074895240366459 3.1222662925720215
-0.6062052845954895 0.021723339334130287 3.0978524684906006
-0.786841094493866 0.013959834352135658 3.4416301250457764
-0.771216094493866 0.013959106057882309 3.4416286945343018
-0.7868432998657227 0.013956723734736443 3.41526198387146
-0.6823694705963135 0.01490226574242115 3.193565607070923
-0.637445330619812 0.01685624197125435 3.2189533710479736
-0.6071739196777344 0.01782849244773388 3.194535732269287
-0.6521000266075134 0.016848336905241013 3.145709991455078
-0.666732132434845 0.013942594639956951 3.3439602851867676
-0.5759083032608032 0.015895750373601913 3.381063461303711
-0.6218110918998718 0.01589210331439972 3.3312606811523438
-0.6803967356681824 0.013953471556305885 3.4308786392211914
-0.6052011847496033 0.014926419593393803 3.4308722019195557
-0.6960245966911316 0.012973293662071228 3.3937695026397705
-0.7868464589118958 0.012975817546248436 3.3781514167785645
-0.7712191939353943 0.01297817099839449 3.4045181274414062
-0.7868473529815674 0.011997993104159832 3.3674089908599854
-0.7575588226318359 0.011985003016889095 3.268770217895508
-0.7126377820968628 0.013934481889009476 3.256070613861084
-0.7575616836547852 0.011980537325143814 3.2306830883026123
-0.34932711720466614 0.023281749337911606 3.605353355407715
-0.32694733142852783 0.025678684934973717 3.6302647590637207
-0.33370304107666016 0.023721376433968544 3.591986656188965
-0.3493311107158661 0.021764665842056274 3.554877758026123
-0.33370837569236755 0.021761013194918633 3.530461311340332
-0.3337092995643616 0.021759534254670143 3.517765760421753
-0.5456182956695557 0.02177693322300911 3.5793089866638184
-0.5153511166572571 0.019813673570752144 3.5050854682922363
-0.44015246629714966 0.020790966227650642 3.542189598083496
-0.42453065514564514 0.02078583464026451 3.505077838897705
-0.6792740225791931 0.01993282325565815 3.5935957431793213
-0.6208113431930542 0.021783411502838135 3.6037302017211914
-0.7721790075302124 0.017884183675050735 3.601790189743042
-0.7419111132621765 0.01665283925831318 3.5374717712402344
-0.6852728128433228 0.019705820828676224 3.592555046081543
-0.7116372585296631 0.01787417382001877 3.54123592376709
-0.7721883058547974 0.014941558241844177 3.4914350509643555
-0.741915762424469 0.015915287658572197 3.479713201522827
-0.7721893787384033 0.014940173365175724 3.4797158241271973
0.0744590163230896 0.04707983136177063 3.085096597671509
0.12035834044218063 0.04610244929790497 3.0968120098114014
0.12035726755857468 0.04610106348991394 3.085092782974243
-0.03198236599564552 0.04416097328066826 3.1339354515075684
0.04418828338384628 0.04513240605592728 3.1212334632873535
-0.0017110331682488322 0.04610978811979294 3.109517812728882
-0.13745427131652832 0.04123212769627571 3.097810983657837
-0.12280388176441193 0.042210835963487625 3.1222243309020996
-0.09253231436014175 0.044159647077322006 3.097806692123413
-0.0017052032053470612 0.03830597177147865 3.1837401390075684
0.04419119656085968 0.04123049974441528 3.1583445072174072
-0.03197944909334183 0.04025909677147865 3.171046733856201
-0.28784558176994324 0.03342670202255249 3.0968475341796875
-0.25757306814193726 0.03537699580192566 3.085125684738159
-0.28784650564193726 0.03537844121456146 3.0851283073425293
0.07447071373462677 0.035378485918045044 3.2335402965545654
0.12037238478660583 0.03440409153699875 3.2706477642059326
0.12036711722612381 0.038303010165691376 3.2081449031829834
-0.1823664903640747 0.03245961666107178 3.2208666801452637
-0.1677209734916687 0.036360833793878555 3.1837542057037354
-0.1823713630437851 0.035382095724344254 3.1593408584594727
-0.13744162023067474 0.03148525953292847 3.2579734325408936
-0.09252160787582397 0.03343338519334793 3.2335546016693115
-0.12279608845710754 0.03538644686341286 3.2208614349365234
-0.25756701827049255 0.03050277568399906 3.1583709716796875
-0.22728939354419708 0.029530588537454605 3.20817494392395
-0.22729450464248657 0.03245306760072708 3.1466493606567383
-0.06126570329070091 0.028557773679494858 3.3077738285064697
0.02955574356019497 0.02953147143125534 3.3204619884490967
-0.01634569838643074 0.030505867674946785 3.2833549976348877
0.04519099369645119 0.02759203501045704 3.443511962890625
0.10573782026767731 0.028565702959895134 3.4435067176818848
0.10573604702949524 0.028562838211655617 3.4190917015075684
-0.0759090706706047 0.026612576097249985 3.3693010807037354
-0.04563245549798012 0.02661547064781189 3.4064090251922607
0.014912364073097706 0.027586273849010468 3.381988763809204
-0.2878294289112091 0.024660896509885788 3.295097827911377
-0.2575567364692688 0.02563450299203396 3.2823991775512695
-0.2878343462944031 0.026606690138578415 3.232595443725586
-0.22727541625499725 0.023691635578870773 3.382009506225586
-0.16672633588314056 0.024668166413903236 3.406419277191162
-0.19700272381305695 0.024665240198373795 3.369311571121216
-0.2575456202030182 0.02272089384496212 3.4191229343414307
0.04422493278980255 0.03248923644423485 3.5655860900878906
0.10309372842311859 0.035313911736011505 3.660407304763794
0.10483633726835251 0.0353696271777153 3.6603646278381348
0.12039699405431747 0.033462148159742355 3.565579414367676
0.12039260566234589 0.03150329366326332 3.5167500972747803
0.07449416816234589 0.03150549903512001 3.516753673553467
-0.14260496199131012 0.029988111928105354 3.6354150772094727
-0.22725960612297058 0.026642881333827972 3.5656092166900635
-0.13643714785575867 0.028594499453902245 3.5900166034698486
-0.22726181149482727 0.025663454085588455 3.541194438934326
-0.09152143448591232 0.026630613952875137 3.516768217086792
-0.030970467254519463 0.029563134536147118 3.5655927658081055
-0.04659967124462128 0.02858160063624382 3.5167644023895264
-0.19699056446552277 0.024682579562067986 3.516777276992798
-0.10616590827703476 0.027613595128059387 3.565598964691162
-0.16671712696552277 0.024681102484464645 3.5167746543884277
-1.4075335264205933 0.005145825911313295 3.220980405807495
-1.346981167793274 0.007106246892362833 3.283475160598755
-1.3469878435134888 0.00612087594345212 3.208279848098755
-1.504216194152832 0.004020996391773224 3.3028523921966553
-1.4221274852752686 0.006135275587439537 3.3308582305908203
-1.4837009906768799 0.004175071604549885 3.270791530609131
-1.4387946128845215 0.0012236478505656123 3.0852410793304443
-1.3626220226287842 0.003178142011165619 3.0969533920288086
-1.3626224994659424 0.002200193703174591 3.0852346420288086
-1.4837127923965454 0.0022059306502342224 3.134072780609131
-1.4231666326522827 0.003181010251864791 3.1213724613189697
-1.4993396997451782 0.0012265162076801062 3.1096601486206055
-1.5755020380020142 0.001239562057889998 3.220994710922241
-1.559880256652832 0.0012352063786238432 3.1838841438293457
-1.5755071640014648 0.0002557921106927097 3.1594715118408203
-1.6809779405593872 -0.0007236392702907324 3.135066270828247
-1.636050820350647 0.00026013917522504926 3.1965858936309814
-1.6360560655593872 -0.0007236306555569172 3.1350626945495605
-1.7673096656799316 -0.0016161613166332245 3.201399564743042
-1.6809706687927246 0.0002632882969919592 3.2234508991241455
-1.725894808769226 -0.0007164105772972107 3.1965935230255127
-0.802075982093811 0.005129862576723099 3.0851876735687256
-0.9836879968643188 0.013959439471364021 3.4309051036834717
-0.9231411218643188 0.01395946554839611 3.4308998584747314
-0.9836911559104919 0.01395509671419859 3.3937957286834717
-0.8333261013031006 0.011965795420110226 3.0851895809173584
-0.8177000880241394 0.012943729758262634 3.096906900405884
-0.8177011609077454 0.012942344881594181 3.085188150405884
-0.8333249092102051 0.010990957729518414 3.0998380184173584
-0.8176987171173096 0.010992669500410557 3.114485263824463
-0.8176988959312439 0.011968892998993397 3.111555576324463
-0.9231469631195068 0.012974402867257595 3.3586344718933105
-0.8625972270965576 0.012978771701455116 3.3957388401031494
-0.8625999093055725 0.011998113244771957 3.3605825901031494
-0.8176900744438171 0.010027903132140636 3.215071439743042
-0.817694365978241 0.010022174566984177 3.166243314743042
-0.8333207368850708 0.010020462796092033 3.1515960693359375
-1.0149554014205933 0.009052381850779057 3.223877191543579
-0.9993259310722351 0.011011223308742046 3.2727036476135254
-0.9387785792350769 0.010034873150289059 3.2746517658233643
-0.9700385928153992 0.008068590424954891 3.1623499393463135
-0.8938623070716858 0.009051111526787281 3.2131247520446777
-0.9094924926757812 0.009043670259416103 3.1496493816375732
-1.1653385162353516 0.010038571432232857 3.3059206008911133
-1.1047872304916382 0.011998993344604969 3.368415355682373
-1.1047898530960083 0.011994649656116962 3.331305980682373
-1.2258777618408203 0.012003373354673386 3.4055347442626953
-1.1653308868408203 0.012003369629383087 3.405529737472534
-1.2258827686309814 0.010042917914688587 3.3430349826812744
-1.1809706687927246 0.008075356483459473 3.219984769821167
-1.1204220056533813 0.01003146544098854 3.2453699111938477
-1.1360514163970947 0.00807262398302555 3.1965434551239014
-1.091137409210205 0.006108020897954702 3.098883628845215
-1.2415229082107544 0.0051384661346673965 3.158466339111328
-1.1966028213500977 0.005135733168572187 3.1350252628326416
-1.2415261268615723 0.004157683812081814 3.1223340034484863
-1.1113680601119995 0.01602419652044773 3.4761033058166504
-0.862589955329895 0.013965529389679432 3.4826529026031494
-0.8323153257369995 0.013967236503958702 3.4972987174987793
-0.832316517829895 0.013965511694550514 3.4826502799987793
2.223543882369995 0.09165976196527481 2.543238639831543
2.25382137298584 0.09165976196527481 2.5803496837615967
2.314361333847046 0.09163854271173477 2.518810987472534
2.3299975395202637 0.09165097773075104 2.61745548248291
2.3758959770202637 0.09164218604564667 2.617450475692749
2.3905375003814697 0.091629758477211 2.5559170246124268
2.162982940673828 0.09067539870738983 2.4192051887512207
2.162986993789673 0.09068120270967484 2.456319570541382
2.223529577255249 0.08968723565340042 2.419198513031006
2.2538087368011475 0.0906657874584198 2.469006299972534
2.3446264266967773 0.09064457565546036 2.4445788860321045
2.3143513202667236 0.08967182785272598 2.4318854808807373
2.162975788116455 0.0896892100572586 2.357673406600952
2.223522663116455 0.08870105445384979 2.3576669692993164
2.162972927093506 0.08870883285999298 2.333256244659424
2.2078919410705566 0.08771984279155731 2.3088340759277344
2.2684414386749268 0.08771206438541412 2.333244562149048
2.2528138160705566 0.08771124482154846 2.3088290691375732
2.1327288150787354 0.08973181992769241 2.5930604934692383
2.1630051136016846 0.09070640057325363 2.617474317550659
2.1327273845672607 0.09070640057325363 2.5803632736206055
2.13273549079895 0.08876488357782364 2.654592275619507
2.16300892829895 0.08973564207553864 2.6545886993408203
2.132732629776001 0.08876106142997742 2.6301748752593994
2.3895394802093506 0.0876946747303009 2.3703455924987793
2.4198145866394043 0.08866742253303528 2.3830389976501465
2.4041850566864014 0.08671148866415024 2.345926523208618
2.3280088901519775 0.08672027289867401 2.3088207244873047
2.3436367511749268 0.08672109991312027 2.3332364559173584
2.3582820892333984 0.0857379138469696 2.3088176250457764
2.465965747833252 0.08971994370222092 2.6159167289733887
2.5123257637023926 0.08770935237407684 2.6145427227020264
2.4813573360443115 0.08965923637151718 2.5559070110321045
2.436408519744873 0.08474837243556976 2.3215060234069824
2.452038049697876 0.0867043063044548 2.3586182594299316
2.453986406326294 0.08376844227313995 2.3215041160583496
2.5262718200683594 0.0867113247513771 2.494370698928833
2.556551694869995 0.08476202189922333 2.5558993816375732
2.556544780731201 0.0837758406996727 2.494367837905884
2.4979403018951416 0.08572475612163544 2.3957276344299316
2.5282132625579834 0.08278927206993103 2.3957247734069824
2.4998886585235596 0.08278889209032059 2.3586134910583496
2.5301573276519775 0.07887104153633118 2.3214964866638184
2.5584816932678223 0.07887142151594162 2.358607530593872
2.5584774017333984 0.07788905501365662 2.32149338722229
2.2528772354125977 0.09365788847208023 2.866914749145508
2.2772531509399414 0.09202896058559418 2.8720200061798096
2.2079505920410156 0.09268360584974289 2.826481819152832
2.222594738006592 0.09169843792915344 2.789365768432617
2.1776700019836426 0.09072665870189667 2.76495361328125
2.1620378494262695 0.0897434651851654 2.7034237384796143
2.2069625854492188 0.09071524441242218 2.7278358936309814
2.1766865253448486 0.09071722626686096 2.7034218311309814
2.1327621936798096 0.0917312279343605 2.8889987468719482
2.163034439086914 0.09270000457763672 2.876298189163208
2.132753610610962 0.0907430574297905 2.814770221710205
2.2977800369262695 0.08971747010946274 2.7034084796905518
2.3280563354492188 0.08971548825502396 2.7278225421905518
2.4042251110076904 0.08774395287036896 2.703397035598755
2.4345014095306396 0.08774229139089584 2.729865789413452
2.6012847423553467 0.08163660019636154 2.544593334197998
2.631723403930664 0.07690411061048508 2.3576231002807617
2.676645040512085 0.07494238764047623 2.357618570327759
2.631720542907715 0.07592373341321945 2.3332059383392334
2.692861795425415 0.0764322280883789 2.420536756515503
2.6766390800476074 0.07298162579536438 2.308784008026123
2.7215635776519775 0.07200027257204056 2.3331966400146484
2.7215607166290283 0.07101989537477493 2.308779239654541
2.79870867729187 0.06905198842287064 2.3087708950042725
2.825108289718628 0.07002731412649155 2.3331851959228516
2.830937385559082 0.06975016742944717 2.3263096809387207
2.1171131134033203 0.08877169340848923 2.679011583328247
2.5867977142333984 0.07690733671188354 2.3217015266418457
2.1473426818847656 0.08772783726453781 2.2846412658691406
2.1631994247436523 0.0906868427991867 2.493436336517334
2.6317179203033447 0.07494362443685532 2.309000015258789
2.5584733486175537 0.0769069567322731 2.284590482711792
2.420779228210449 0.08279270678758621 2.284607172012329
2.132934331893921 0.09168081730604172 2.5676684379577637
2.1473891735076904 0.08876971155405045 2.703425407409668
2.1327452659606934 0.08975488692522049 2.740541696548462
2.6317150592803955 0.0739632397890091 2.2845826148986816
2.1158218383789062 0.09174785763025284 2.9759178161621094
2.1024882793426514 0.08197338134050369 2.901700973510742
2.1026580333709717 0.0907062366604805 2.5432546138763428
2.193315029144287 0.09465694427490234 2.93782639503479
2.102473020553589 0.08878610283136368 2.753242015838623
2.1027050018310547 0.08296139538288116 2.975924253463745
2.4188308715820312 0.08572857081890106 2.321721315383911
2.193474292755127 0.09165959805250168 2.506129741668701
2.1629703044891357 0.08772866427898407 2.3090569972991943
-0.8022528886795044 0.013965445570647717 3.4826478958129883
-0.8928633332252502 0.013965516351163387 3.4826552867889404
-0.8928634524345398 0.015918640419840813 3.4826550483703613
-0.970045804977417 0.007082007825374603 3.073692560195923
-0.8020759224891663 0.013919314369559288 3.085392713546753
-1.2864516973495483 -0.006589819677174091 3.073723554611206
-1.7256898880004883 -0.000723297125659883 3.1352829933166504
-0.892864465713501 0.013963821344077587 3.4680066108703613
-0.8022542595863342 0.005174689926207066 3.4680004119873047
-0.8022569417953491 0.012983061373233795 3.432842969894409
-0.8177019357681274 0.012941407971084118 3.0736751556396484
-0.8022873401641846 0.005128759425133467 3.0736820697784424
-1.7706120014190674 -0.0016998383216559887 3.135287046432495
-1.2415289878845215 0.003176871221512556 3.0862009525299072
-0.862804114818573 0.01395938266068697 3.4308948516845703
-1.77040696144104 -0.010495699942111969 3.0737719535827637
-0.8022860884666443 0.002200457500293851 3.0854010581970215
-1.2864487171173096 0.003179633989930153 3.109642267227173
-1.225872278213501 0.01396382786333561 3.468034505844116
-0.8628008961677551 0.013963725417852402 3.4680042266845703
-0.22726400196552277 0.024684026837348938 3.516779899597168
0.16609381139278412 0.027612822130322456 3.6661691665649414
-0.0476103350520134 0.04708755761384964 3.098010301589966
-0.8024627566337585 0.013965058140456676 3.4797186851501465
-0.7270895838737488 0.01587025262415409 3.0980753898620605
-0.31809142231941223 0.022725144401192665 3.43084716796875
-0.45483753085136414 0.03343521058559418 3.0980520248413086
-0.28781500458717346 0.021751506254076958 3.4679553508758545
0.028560316190123558 0.04805898666381836 3.085308313369751
-0.31811991333961487 0.0353802815079689 3.0853431224823
0.12035567313432693 0.03438170999288559 3.073787212371826
-0.333710253238678 0.021758055314421654 3.5050699710845947
-0.8020750880241394 0.013920729048550129 3.097111225128174
-0.40893808007240295 0.034410953521728516 3.109767198562622
-0.3181178569793701 0.03440658375620842 3.109758138656616
0.1203884556889534 0.029544439166784286 3.4679203033447266
0.16629917919635773 0.02663007378578186 3.6173360347747803
-0.25754156708717346 0.021750058978796005 3.4679529666900635
-0.2878473997116089 0.03733057156205177 3.0736210346221924
-0.06226096302270889 0.04610882326960564 3.073596715927124
0.12035573273897171 0.03731100633740425 3.073580265045166
-0.7721902132034302 0.014938787557184696 3.467996597290039
-0.4089088439941406 0.020780734717845917 3.467965602874756
-0.3483620584011078 0.020777840167284012 3.4679605960845947
-0.4694880247116089 0.034409601241350174 3.073638439178467
0.6648963689804077 0.03926663473248482 3.51670503616333
0.7557168006896973 0.04218760132789612 3.5166969299316406
0.7107905745506287 0.039256494492292404 3.467869758605957
0.7107815742492676 0.042173124849796295 3.3565337657928467
0.6951364874839783 0.05288691818714142 3.0979387760162354
1.0886892080307007 0.05479937791824341 3.0734829902648926
0.18069584667682648 0.04414629563689232 3.097777843475342
0.3318534791469574 0.042178213596343994 3.0862560272216797
0.6502135992050171 0.05191325396299362 3.0862228870391846
0.741064190864563 0.040230151265859604 3.467866897583008
0.650234580039978 0.040225815027952194 3.356539011001587
0.6502156853675842 0.05289258807897568 3.1096620559692383
0.16604946553707123 0.043174032121896744 3.12219500541687
1.1346205472946167 0.05288831517100334 3.4731802940368652
0.6502262949943542 0.04997828230261803 3.244225263595581
1.0886904001235962 0.06651812791824341 3.0734825134277344
0.24127475917339325 0.031491491943597794 3.4923255443573
0.18170231580734253 0.029541218653321266 3.4679150581359863
0.18169653415679932 0.029532626271247864 3.394669771194458
0.40707927942276 0.03537942096590996 3.4678955078125
1.0437992811203003 0.0499667264521122 3.4678404331207275
1.1345884799957275 0.05967777967453003 3.0734784603118896
0.6502468585968018 0.03828996792435646 3.5040102005004883
0.6199669241905212 0.037307750433683395 3.4307656288146973
0.5593917965888977 0.04996737465262413 3.0735347270965576
0.27130722999572754 0.04120882228016853 3.0979807376861572
1.8753873109817505 0.08887003362178802 3.0860989093780518
1.134383201599121 0.06651785224676132 3.1084258556365967
1.5580015182495117 0.07719536870718002 3.0732223987579346
1.6185662746429443 0.07916417717933655 3.2812461853027344
1.9212846755981445 0.08788537979125977 3.0733988285064697
1.1500368118286133 0.05386243015527725 3.4678308963775635
1.618547797203064 0.07132737338542938 3.073429584503174
1.194927453994751 0.06845811009407043 3.073260545730591
1.6790947914123535 0.07327169924974442 3.0732128620147705
-1.8465791940689087 -0.0026868493296205997 3.073777198791504
-1.7704036235809326 -0.0017009093426167965 3.1225972175598145
2.6316564083099365 0.07095197588205338 1.8657910823822021
2.6775012016296387 0.060129012912511826 1.4958291053771973
2.1026222705841064 0.08675041794776917 2.2350471019744873
2.1025991439819336 0.07500248402357101 2.0856168270111084
2.1025993824005127 0.07500287890434265 2.0875701904296875
2.1474459171295166 0.09246264398097992 1.5259699821472168
2.110347270965576 0.09541356563568115 1.59824800491333
3.071110963821411 0.059154242277145386 1.8921029567718506
2.631700038909912 0.07394196093082428 2.1744260787963867
2.102390766143799 0.07207311689853668 2.0875742435455322
2.632636547088623 0.07095655798912048 1.8902082443237305
2.586717367172241 0.07191285490989685 1.7417563199996948
2.4959185123443604 0.0748889371752739 1.8902263641357422
2.1025311946868896 0.09443412721157074 1.5757874250411987
2.102363109588623 0.08863136172294617 1.865861415863037
2.106217384338379 0.08660557121038437 1.4959107637405396
2.09470796585083 0.09539623558521271 1.4956992864608765
2.1064255237579346 0.0953928530216217 1.487884283065796
2.143326759338379 0.0865984633564949 1.4959049224853516
3.0408377647399902 0.06111280247569084 1.8901532888412476
2.6004552841186523 0.07493174821138382 2.2115445137023926
2.600465774536133 0.07494606077671051 2.284796714782715
2.616997718811035 0.07094024866819382 1.7915642261505127
2.177797555923462 0.08280307054519653 2.098301887512207
2.5564372539520264 0.07288549095392227 1.6919487714767456
2.4656381607055664 0.07586157321929932 1.8404191732406616
2.5564167499542236 0.07285667210817337 1.5444676876068115
2.1093573570251465 0.09539484977722168 1.5015573501586914
2.1170146465301514 0.08765676617622375 1.8902769088745117
2.129655122756958 0.08757764846086502 1.495906949043274
2.102522611618042 0.09832700341939926 1.507418155670166
2.142352342605591 0.09538837522268295 1.499809980392456
2.5867698192596436 0.0749150961637497 2.112900495529175
2.1934189796447754 0.08181874454021454 2.0738823413848877
2.5866899490356445 0.07187431305646896 1.5444636344909668
2.10545015335083 0.09539471566677094 1.4966744184494019
2.283998727798462 0.08175570517778397 1.8404432535171509
2.11619234085083 0.0973455086350441 1.495695948600769
2.1025807857513428 0.08669260144233704 1.9391118288040161
3.070899248123169 0.05914893001317978 1.863777756690979
3.07090425491333 0.05915598198771477 1.8999167680740356
3.2503318786621094 0.04830174148082733 1.5445799827575684
3.1157755851745605 0.054192934185266495 1.5443882942199707
3.0865278244018555 0.059150330722332 1.8901472091674805
3.1021528244018555 0.05817005783319473 1.890145182609558
3.1157686710357666 0.05418366566300392 1.4957690238952637
3.0709898471832275 0.0482461154460907 1.1160414218902588
2.586625099182129 0.07080786675214767 1.1503013372421265
2.586674690246582 0.07087690383195877 1.4460289478302002
2.1638143062591553 0.09535353630781174 1.3662160634994507
2.1911380290985107 0.09532012790441513 1.2460781335830688
2.184298515319824 0.09531638026237488 1.224591851234436
2.2106449604034424 0.09528248757123947 1.1015236377716064
2.5396790504455566 0.07364588975906372 0.7197978496551514
2.5865530967712402 0.06777753680944443 0.7197906374931335
2.448859930038452 0.07952266186475754 0.7198132276535034
2.494757890701294 0.07658418267965317 0.7198054790496826
2.1677327156066895 0.09536975622177124 1.4384909868240356
2.125737428665161 0.09537343680858612 1.4199408292770386
2.249711751937866 0.09528094530105591 1.1269112825393677
2.2184853553771973 0.09531991928815842 1.2675608396530151
2.253568649291992 0.09521082043647766 0.8309718370437622
3.07072377204895 0.044259414076805115 0.7705041766166687
2.8883168697357178 0.05601286143064499 0.7705278992652893
2.1882033348083496 0.09531380981206894 1.2167776823043823
2.1911299228668213 0.09530867636203766 1.197243332862854
2.479130744934082 0.07853730022907257 0.707110583782196
2.23109769821167 0.09520082175731659 0.7686830163002014
2.138554811477661 0.10696657001972198 0.8954535126686096
2.2525784969329834 0.09421554207801819 0.7491451501846313
2.182267189025879 0.10106497257947922 0.7491567134857178
2.2467284202575684 0.0952063724398613 0.8065556287765503
2.6315386295318604 0.06981124728918076 1.101459264755249
3.056065320968628 0.04522423818707466 0.7072267532348633
2.6011996269226074 0.06777209043502808 0.7073020935058594
2.119886636734009 0.09538628160953522 1.4714890718460083
2.1716203689575195 0.09534288942813873 1.327147126197815
2.210583448410034 0.09519602358341217 0.7315720319747925
2.183354377746582 0.09536215662956238 1.4189544916152954
2.1327292919158936 0.10408632457256317 1.1015348434448242
2.1461362838745117 0.10497981309890747 0.7559986710548401
2.1023995876312256 0.11084720492362976 0.7559985518455505
3.071046829223633 0.05515960976481438 1.4479115009307861
2.5866048336029053 0.0717555582523346 1.0272374153137207
2.586555004119873 0.0687568262219429 0.7315108776092529
2.2653443813323975 0.0923597514629364 1.1757441759109497
2.187228202819824 0.09531581401824951 1.2245913743972778
2.586606979370117 0.07175852358341217 1.039934515953064
2.2213973999023438 0.09529463946819305 1.1620771884918213
2.1434669494628906 0.10407768934965134 1.0732088088989258
2.143442392349243 0.10697232931852341 0.9237769246101379
2.255505084991455 0.09421085566282272 0.7315642833709717
2.2496581077575684 0.09520559757947922 0.8055786490440369
3.055419683456421 0.05515938997268677 1.4342403411865234
2.6012654304504395 0.07079360634088516 1.1014641523361206
2.58664608001709 0.07181353867053986 1.2743414640426636
2.105238914489746 0.09539005905389786 1.4753981828689575
2.1286673545837402 0.09537311643362045 1.4209171533584595
2.18430495262146 0.09532555937767029 1.2636598348617554
2.2575013637542725 0.09524717926979065 0.9891960620880127
2.1882002353668213 0.09530923515558243 1.1972438097000122
2.4332454204559326 0.08149316906929016 0.7813472151756287
2.570988178253174 0.07274680584669113 1.0770515203475952
2.1618807315826416 0.09538096934556961 1.4832032918930054
2.1210556030273438 0.10122240334749222 1.3720780611038208
2.1599247455596924 0.09537763893604279 1.4658397436141968
2.1706624031066895 0.09536940604448318 1.439467191696167
2.2097065448760986 0.09533629566431046 1.3300707340240479
2.2194676399230957 0.09532751888036728 1.3007683753967285
2.246782064437866 0.09528150409460068 1.1269118785858154
2.184213161468506 0.10105481743812561 0.7071583271026611
2.798595905303955 0.0649886280298233 1.4958078861236572
2.8726918697357178 0.056991931051015854 0.7685768604278564
2.7359743118286133 0.06287755817174911 0.7686007022857666
2.3112361431121826 0.08941254764795303 1.1386226415634155
2.150146245956421 0.09536142647266388 1.3886826038360596
2.2691729068756104 0.09224975854158401 0.7073603272438049
2.1618812084198 0.09538166224956512 1.486133337020874
2.2253000736236572 0.09528882801532745 1.1405894756317139
2.1677358150482178 0.09537408500909805 1.4570482969284058
2.1170401573181152 0.10888021439313889 0.7073785066604614
2.7380430698394775 0.06596806645393372 1.4587032794952393
2.691042423248291 0.06580139696598053 0.707075834274292
2.1355156898498535 0.09441245347261429 1.4959040880203247
2.171625852584839 0.09535064548254013 1.3603546619415283
2.2067408561706543 0.09528598934412003 1.1132450103759766
2.1161749362945557 0.10122627764940262 1.3847757577896118
2.2555668354034424 0.09527388215065002 1.1015162467956543
2.164804458618164 0.09537234157323837 1.4472817182540894
2.311229944229126 0.08940385282039642 1.1015081405639648
2.172600507736206 0.09534773230552673 1.348634123802185
2.1755247116088867 0.09533959627151489 1.316402792930603
2.1774957180023193 0.09536422044038773 1.42286217212677
2.1025149822235107 0.10026951134204865 1.4588003158569336
2.193077802658081 0.09725342690944672 1.1630581617355347
2.1026744842529297 0.1060594767332077 1.1630687713623047
2.228245496749878 0.09531047195196152 1.2353280782699585
2.250638961791992 0.09521137923002243 0.8309723734855652
3.599660634994507 0.026347938925027847 0.004100067541003227
3.1458311080932617 0.04118918627500534 0.31261852383613586
3.508901834487915 0.03231341019272804 0.31255054473876953
3.0706748962402344 0.04809577763080597 0.5050426721572876
3.070711135864258 0.045217957347631454 0.6945268511772156
3.5548768043518066 0.0314333550632 0.7069278359413147
3.5547239780426025 0.024385526776313782 -0.06914535909891129
3.251985788345337 0.019571715965867043 -0.08177877217531204
3.569458484649658 0.033288873732089996 0.3613745868206024
3.5547337532043457 0.025375448167324066 -0.02030905894935131
3.554807186126709 0.03231232613325119 0.3486802875995636
3.4941775798797607 0.02635311149060726 -0.06913414597511292
3.130898952484131 0.038158856332302094 -0.06905993074178696
3.115557909011841 0.04217303916811943 0.31262412667274475
3.5548768043518066 0.03924313187599182 0.6954173445701599
3.100979804992676 0.04618030786514282 0.6691259145736694
3.3730814456939697 0.027355235069990158 -0.08180637657642365
3.130906105041504 0.03816873952746391 -0.03292100131511688
3.386838674545288 0.03235282003879547 0.3496900498867035
3.1614632606506348 0.04119563475251198 0.3497312068939209
3.5245931148529053 0.03826019912958145 0.6456103324890137
3.086331367492676 0.04618382826447487 0.669128954410553
3.0871059894561768 0.04326412081718445 0.7070099115371704
3.5382742881774902 0.027531059458851814 0.7069321870803833
3.554795265197754 0.03131917119026184 0.2881234288215637
3.0706264972686768 0.04412301257252693 0.2618423402309418
3.2519867420196533 0.022501466795802116 -0.08156271278858185
3.5727765560150146 0.040218476206064224 0.707073986530304
3.1313321590423584 0.04726043716073036 1.138496994972229
3.3127641677856445 0.04428738355636597 1.1384674310684204
3.554884910583496 0.04023087024688721 0.7430647015571594
3.3430397510528564 0.045259445905685425 1.1501827239990234
3.0851633548736572 0.043279003351926804 0.76854407787323
3.085421323776245 0.0462774857878685 1.0642735958099365
3.101111650466919 0.05319890007376671 1.4459586143493652
3.5246050357818604 0.03925308585166931 0.706930935382843
3.252211093902588 0.045269742608070374 1.1013613939285278
3.1166775226593018 0.04627867415547371 1.1013840436935425
3.1010608673095703 0.04727045074105263 1.1502227783203125
3.1154303550720215 0.04228648543357849 0.731423556804657
2.168504238128662 0.09508165717124939 0.2795865833759308
2.1567535400390625 0.0950389951467514 0.1155039593577385
2.12868070602417 0.10388720780611038 0.3127994239330292
2.2055857181549072 0.09503550082445145 0.1369817703962326
2.1296229362487793 0.10383863747119904 0.1360207498073578
2.202669143676758 0.09505452960729599 0.20437432825565338
2.601141929626465 0.06769110262393951 0.4113633930683136
2.586493492126465 0.06769390404224396 0.41136622428894043
2.171433687210083 0.09508082270622253 0.27860933542251587
2.168494462966919 0.09506803005933762 0.2297750860452652
2.1023237705230713 0.10683530569076538 0.3616383969783783
2.102381944656372 0.10984595119953156 0.6575697064399719
2.1169331073760986 0.10482512414455414 0.16337020695209503
2.116962194442749 0.10486601293087006 0.3128013014793396
2.915649652481079 0.054039593786001205 0.7070378065109253
2.5865321159362793 0.06774788349866867 0.6086586117744446
2.570868968963623 0.06965002417564392 0.41136860847473145
2.1596832275390625 0.09503842890262604 0.11550339311361313
2.2310876846313477 0.0951867327094078 0.7073667645454407
2.228100299835205 0.09510630369186401 0.4114286005496979
2.204620122909546 0.09505095332860947 0.19265376031398773
2.1987481117248535 0.09503442049026489 0.1281929761171341
2.1919097900390625 0.09503225982189178 0.1154971793293953
2.616670608520508 0.06560052186250687 -0.08165857940912247
2.3130407333374023 0.08822710812091827 0.31276771426200867
2.2446818351745605 0.09116989374160767 0.31278014183044434
2.219291925430298 0.09508099406957626 0.31278425455093384
2.23690128326416 0.09512148052453995 0.4729589819908142
2.2466835975646973 0.09514312446117401 0.5589060187339783
2.211498498916626 0.0951094776391983 0.4114319086074829
2.233969211578369 0.09511856734752655 0.4602625072002411
2.1276655197143555 0.10383287817239761 0.11355720460414886
2.203599691390991 0.09498990327119827 -0.03274631127715111
2.1276369094848633 0.10379280149936676 -0.03294380381703377
2.1948394775390625 0.09503169357776642 0.11549661308526993
2.165564775466919 0.09506858885288239 0.22977541387081146
2.6616711616516113 0.06374946981668472 0.3244268000125885
2.1762466430664062 0.09498178213834763 -0.08157563954591751
2.160630702972412 0.09499762952327728 -0.03295469284057617
2.2418034076690674 0.09514753520488739 0.5716041326522827
2.230055809020996 0.09510940313339233 0.42412543296813965
2.1938319206237793 0.09498830139636993 -0.04544154927134514
2.2524993419647217 0.09312819689512253 0.33719563484191895
2.2095718383789062 0.09514651447534561 0.5452395677566528
2.189030408859253 0.09510336071252823 0.37334516644477844
2.5717685222625732 0.06856583058834076 0.016995562240481377
2.172342538833618 0.09498573839664459 -0.06985440105199814
2.1606624126434326 0.09504199028015137 0.1291767805814743
2.163560152053833 0.09499679505825043 -0.03393195569515228
2.160623788833618 0.09498798102140427 -0.06985214352607727
2.2055506706237793 0.09498605877161026 -0.045444048941135406
3.070566415786743 0.04013344272971153 -0.042671993374824524
3.0708329677581787 0.04314372316002846 0.25305360555648804
2.586409330368042 0.06757631152868271 -0.02012154646217823
2.191959857940674 0.09510252624750137 0.3723681569099426
2.586411952972412 0.06757978349924088 -0.007424503564834595
2.1723387241363525 0.08619347959756851 -0.08157216012477875
2.174365520477295 0.09508319199085236 0.2893524169921875
2.2457070350646973 0.09514331072568893 0.5589063763618469
2.226125478744507 0.09507621079683304 0.30008599162101746
2.1276276111602783 0.10377995669841766 -0.08156158030033112
2.6167473793029785 0.06668455898761749 0.3127143383026123
3.040292739868164 0.04111526161432266 -0.04461978003382683
3.0405592918395996 0.044125571846961975 0.25110605359077454
2.1851143836975098 0.09509023278951645 0.32255789637565613
2.1694653034210205 0.09505980461835861 0.2004741132259369
2.219301462173462 0.09509435296058655 0.3616190552711487
2.2339718341827393 0.09512228518724442 0.4739362299442291
2.215383291244507 0.09507826715707779 0.30008789896965027
2.1821846961975098 0.0950910672545433 0.32353514432907104
3.0931646823883057 0.07560203224420547 -1.9135488271713257
3.0847795009613037 0.07466574758291245 -1.883714199066162
3.0848119258880615 0.0776400938630104 -1.769440770149231
3.247711658477783 0.039557766169309616 -1.6593120098114014
3.0848379135131836 0.08646274358034134 -1.6834933757781982
3.0848162174224854 0.08057474344968796 -1.756744146347046
3.070160150527954 0.07959138602018356 -1.7831116914749146
3.115116596221924 0.08060567826032639 -1.6590813398361206
3.2477118968963623 0.04248712211847305 -1.6595289707183838
3.2496657371520996 0.04248698800802231 -1.659313678741455
2.5858426094055176 0.11754941195249557 -2.349268674850464
3.0030205249786377 0.08551183342933655 -1.659265160560608
2.961998701095581 0.09429781883955002 -1.6883519887924194
2.8789477348327637 0.09425302594900131 -1.8436235189437866
2.177846670150757 0.12055651098489761 -2.349360466003418
3.0195319652557373 0.09416917711496353 -1.9891902208328247
2.9072704315185547 0.09425142407417297 -1.833864450454712
3.03711199760437 0.09416849166154861 -1.9823582172393799
3.0468716621398926 0.09415819495916367 -2.0038485527038574
2.944416046142578 0.09429468959569931 -1.7049510478973389
2.9199912548065186 0.09428446739912033 -1.743035078048706
2.5712764263153076 0.11864404380321503 -2.0535361766815186
2.955152750015259 0.09428498893976212 -1.7244880199432373
2.9248721599578857 0.09428088366985321 -1.7498730421066284
2.9043526649475098 0.09426838159561157 -1.7918657064437866
2.9014110565185547 0.09425254166126251 -1.8338629007339478
3.0419929027557373 0.0941648781299591 -1.989196538925171
3.053705930709839 0.09415459632873535 -2.0097103118896484
3.0201737880706787 0.09744498133659363 -2.0536537170410156
2.9473469257354736 0.09429566562175751 -1.701045036315918
